9.626383	0.0000019022	1600
9.623002	0.0000019018	3200
9.619206	0.0000019015	4800
9.615127	0.0000019011	6400
9.610885	0.0000019007	8000
9.606543	0.0000019003	9600
9.602132	0.0000018999	11200
9.597672	0.0000018996	12800
9.593173	0.0000018992	14400
9.588645	0.0000018988	16000
9.584094	0.0000018984	17600
9.579524	0.0000018981	19200
9.574939	0.0000018977	20800
9.570342	0.0000018973	22400
9.552788	0.0000018948	24000
9.490915	0.0000018848	25600
9.407498	0.0000018710	27200
9.317635	0.0000018562	28800
9.235144	0.0000018426	30400
9.159783	0.0000018304	32000
9.090646	0.0000018191	33600
9.037722	0.0000018104	35200
8.992995	0.0000018033	36800
8.953958	0.0000017974	38400
8.924178	0.0000017933	40000
8.896561	0.0000017894	41600
8.878015	0.0000017868	43200
8.860484	0.0000017847	44800
8.847250	0.0000017832	46400
8.834774	0.0000017819	48000
8.822114	0.0000017805	49600
8.811983	0.0000017794	51200
8.803512	0.0000017786	52800
8.795344	0.0000017777	54400
8.787256	0.0000017771	56000
8.779341	0.0000017762	57600
8.772912	0.0000017758	59200
8.766537	0.0000017753	60800
8.760339	0.0000017749	62400
8.754314	0.0000017745	64000
8.748293	0.0000017741	65600
8.742450	0.0000017737	67200
8.736843	0.0000017734	68800
8.731309	0.0000017730	70400
8.725725	0.0000017726	72000
8.720406	0.0000017723	73600
8.714958	0.0000017719	75200
8.709561	0.0000017715	76800
8.704344	0.0000017712	78400
8.699213	0.0000017708	80000
8.694174	0.0000017705	81600
8.688949	0.0000017701	83200
8.683885	0.0000017697	84800
8.678900	0.0000017694	86400
8.673915	0.0000017690	88000
8.669016	0.0000017687	89600
8.664112	0.0000017683	91200
8.659255	0.0000017680	92800
8.654433	0.0000017676	94400
8.649618	0.0000017673	96000
8.644855	0.0000017669	97600
8.640088	0.0000017666	99200
8.585201	0.0000017608	100800
8.535598	0.0000017551	102400
8.484686	0.0000017490	104000
8.434030	0.0000017427	105600
8.380728	0.0000017368	107200
8.332896	0.0000017310	108800
8.284387	0.0000017246	110400
8.233175	0.0000017178	112000
8.185014	0.0000017115	113600
8.142379	0.0000017053	115200
8.099072	0.0000016988	116800
8.060921	0.0000016929	118400
8.021305	0.0000016869	120000
7.981324	0.0000016804	121600
7.943457	0.0000016741	123200
7.904589	0.0000016679	124800
7.867090	0.0000016612	126400
7.828409	0.0000016547	128000
7.789968	0.0000016479	129600
7.758069	0.0000016415	131200
7.723515	0.0000016352	132800
7.690546	0.0000016288	134400
7.658471	0.0000016224	136000
7.625403	0.0000016161	137600
7.595415	0.0000016102	139200
7.569074	0.0000016092	140800
7.539984	0.0000016081	142400
7.509757	0.0000016063	144000
7.482838	0.0000016047	145600
7.454885	0.0000016035	147200
7.427317	0.0000016018	148800
7.400653	0.0000015999	150400
7.376990	0.0000015982	152000
7.352844	0.0000015965	153600
7.328062	0.0000015946	155200
7.306146	0.0000015927	156800
7.284815	0.0000015906	158400
7.262561	0.0000015884	160000
7.240372	0.0000015862	161600
7.217820	0.0000015838	163200
7.197731	0.0000015815	164800
7.175695	0.0000015789	166400
7.155305	0.0000015761	168000
7.132018	0.0000015734	169600
7.112004	0.0000015707	171200
7.093142	0.0000015683	172800
7.075371	0.0000015656	174400
7.058205	0.0000015633	176000
7.042249	0.0000015605	177600
7.026676	0.0000015578	179200
7.009647	0.0000015551	180800
6.993420	0.0000015522	182400
6.975386	0.0000015486	184000
6.959397	0.0000015455	185600
6.946810	0.0000015426	187200
6.935296	0.0000015397	188800
6.921224	0.0000015364	190400
6.907784	0.0000015332	192000
6.894503	0.0000015302	193600
6.883036	0.0000015274	195200
6.866714	0.0000015239	196800
6.853826	0.0000015206	198400
6.840559	0.0000015170	200000
6.824429	0.0000015113	201600
6.813967	0.0000015073	203200
6.805021	0.0000015038	204800
6.796397	0.0000015008	206400
6.785873	0.0000014970	208000
6.778074	0.0000014941	209600
6.770106	0.0000014912	211200
6.763428	0.0000014891	212800
6.758032	0.0000014872	214400
6.753619	0.0000014851	216000
6.747477	0.0000014835	217600
6.742325	0.0000014822	219200
6.742416	0.0000014814	220800
6.743391	0.0000014804	222400
6.740249	0.0000014792	224000
6.740254	0.0000014784	225600
6.739013	0.0000014777	227200
6.737282	0.0000014770	228800
6.736459	0.0000014767	230400
6.735911	0.0000014761	232000
6.736020	0.0000014755	233600
6.733685	0.0000014750	235200
6.731995	0.0000014742	236800
6.732876	0.0000014739	238400
6.733790	0.0000014732	240000
6.731860	0.0000014725	241600
6.731208	0.0000014719	243200
6.726783	0.0000014715	244800
6.725040	0.0000014710	246400
6.724136	0.0000014707	248000
6.721770	0.0000014703	249600
6.719861	0.0000014697	251200
6.718995	0.0000014694	252800
6.717456	0.0000014690	254400
6.717807	0.0000014685	256000
6.716953	0.0000014680	257600
6.717302	0.0000014679	259200
6.716321	0.0000014677	260800
6.715786	0.0000014674	262400
6.714630	0.0000014671	264000
6.713634	0.0000014668	265600
6.713335	0.0000014669	267200
6.710951	0.0000014666	268800
6.711499	0.0000014664	270400
6.710582	0.0000014661	272000
6.708326	0.0000014653	273600
6.707959	0.0000014649	275200
6.707457	0.0000014648	276800
6.707893	0.0000014644	278400
6.707389	0.0000014638	280000
6.704556	0.0000014633	281600
6.703836	0.0000014628	283200
6.704956	0.0000014625	284800
6.706791	0.0000014624	286400
6.706590	0.0000014624	288000
6.707150	0.0000014619	289600
6.708634	0.0000014619	291200
6.708286	0.0000014614	292800
6.709416	0.0000014610	294400
6.708375	0.0000014607	296000
6.707884	0.0000014602	297600
6.707155	0.0000014601	299200
6.706092	0.0000014600	300800
6.704265	0.0000014597	302400
6.704998	0.0000014594	304000
6.708378	0.0000014595	305600
6.708153	0.0000014591	307200
6.707858	0.0000014591	308800
6.706058	0.0000014591	310400
6.705814	0.0000014593	312000
6.704714	0.0000014593	313600
6.705580	0.0000014589	315200
6.704440	0.0000014584	316800
6.705914	0.0000014585	318400
6.705020	0.0000014580	320000
6.704101	0.0000014577	321600
6.701753	0.0000014574	323200
6.705075	0.0000014571	324800
6.705410	0.0000014571	326400
6.705197	0.0000014571	328000
6.704252	0.0000014574	329600
6.704503	0.0000014577	331200
6.706740	0.0000014575	332800
6.706426	0.0000014572	334400
6.702901	0.0000014572	336000
6.703901	0.0000014568	337600
6.700950	0.0000014562	339200
6.702521	0.0000014562	340800
6.701826	0.0000014559	342400
6.700270	0.0000014556	344000
6.700055	0.0000014554	345600
6.701647	0.0000014557	347200
6.702417	0.0000014558	348800
6.703650	0.0000014556	350400
6.704443	0.0000014554	352000
6.704187	0.0000014550	353600
6.704110	0.0000014551	355200
6.703988	0.0000014553	356800
6.705202	0.0000014551	358400
6.708747	0.0000014555	360000
6.710006	0.0000014556	361600
6.711645	0.0000014554	363200
6.714667	0.0000014557	364800
6.714496	0.0000014559	366400
6.714613	0.0000014558	368000
6.713903	0.0000014558	369600
6.712070	0.0000014556	371200
6.713067	0.0000014551	372800
6.710773	0.0000014549	374400
6.710533	0.0000014547	376000
6.710042	0.0000014546	377600
6.708847	0.0000014544	379200
6.708547	0.0000014544	380800
6.707143	0.0000014538	382400
6.706756	0.0000014535	384000
6.706554	0.0000014538	385600
6.708236	0.0000014539	387200
6.707892	0.0000014538	388800
6.708763	0.0000014541	390400
6.707933	0.0000014537	392000
6.708444	0.0000014531	393600
6.710444	0.0000014532	395200
6.709623	0.0000014528	396800
6.709501	0.0000014525	398400
6.708696	0.0000014529	400000
6.706953	0.0000014524	401600
6.703563	0.0000014522	403200
6.702332	0.0000014519	404800
6.705010	0.0000014518	406400
6.706309	0.0000014519	408000
6.706085	0.0000014519	409600
6.704495	0.0000014515	411200
6.703855	0.0000014516	412800
6.707248	0.0000014519	414400
6.706286	0.0000014517	416000
6.704592	0.0000014512	417600
6.702570	0.0000014507	419200
6.701747	0.0000014509	420800
6.704557	0.0000014513	422400
6.702367	0.0000014511	424000
6.701340	0.0000014513	425600
6.702339	0.0000014509	427200
6.703963	0.0000014511	428800
6.699947	0.0000014510	430400
6.699842	0.0000014511	432000
6.697975	0.0000014509	433600
6.698073	0.0000014511	435200
6.699622	0.0000014510	436800
6.699728	0.0000014506	438400
6.700936	0.0000014505	440000
6.700940	0.0000014505	441600
6.701756	0.0000014508	443200
6.702187	0.0000014510	444800
6.702627	0.0000014514	446400
6.701914	0.0000014512	448000
6.703674	0.0000014514	449600
6.701544	0.0000014511	451200
6.700217	0.0000014510	452800
6.702662	0.0000014513	454400
6.703136	0.0000014515	456000
6.701729	0.0000014510	457600
6.702181	0.0000014508	459200
6.701243	0.0000014506	460800
6.701292	0.0000014510	462400
6.702917	0.0000014507	464000
6.704051	0.0000014511	465600
6.706588	0.0000014512	467200
6.707714	0.0000014509	468800
6.707036	0.0000014506	470400
6.707640	0.0000014506	472000
6.707072	0.0000014507	473600
6.707903	0.0000014509	475200
6.707143	0.0000014511	476800
6.705972	0.0000014513	478400
6.706468	0.0000014509	480000
6.707223	0.0000014507	481600
6.706725	0.0000014509	483200
6.705560	0.0000014505	484800
6.705257	0.0000014508	486400
6.706863	0.0000014504	488000
6.706328	0.0000014509	489600
6.705520	0.0000014508	491200
6.702981	0.0000014506	492800
6.704141	0.0000014509	494400
6.703285	0.0000014509	496000
6.702616	0.0000014506	497600
6.701232	0.0000014506	499200
6.702129	0.0000014508	500800
6.700442	0.0000014510	502400
6.700189	0.0000014510	504000
6.701382	0.0000014506	505600
6.700562	0.0000014503	507200
6.699668	0.0000014504	508800
6.696612	0.0000014503	510400
6.693294	0.0000014501	512000
6.692941	0.0000014499	513600
6.695251	0.0000014501	515200
6.698284	0.0000014500	516800
6.700862	0.0000014500	518400
6.700625	0.0000014499	520000
6.701103	0.0000014498	521600
6.699409	0.0000014494	523200
6.697839	0.0000014487	524800
6.698040	0.0000014485	526400
6.697390	0.0000014486	528000
6.699484	0.0000014484	529600
6.700304	0.0000014483	531200
6.700665	0.0000014486	532800
6.701510	0.0000014488	534400
6.701514	0.0000014485	536000
6.702503	0.0000014485	537600
6.704766	0.0000014483	539200
6.706454	0.0000014484	540800
6.702856	0.0000014483	542400
6.705101	0.0000014485	544000
6.707243	0.0000014485	545600
6.704129	0.0000014483	547200
6.705247	0.0000014480	548800
6.705996	0.0000014481	550400
6.706260	0.0000014479	552000
6.707286	0.0000014480	553600
6.705271	0.0000014477	555200
6.703685	0.0000014477	556800
6.703518	0.0000014476	558400
6.702380	0.0000014475	560000
6.704322	0.0000014477	561600
6.704437	0.0000014479	563200
6.706241	0.0000014477	564800
6.706184	0.0000014477	566400
6.705466	0.0000014477	568000
6.705788	0.0000014474	569600
6.707597	0.0000014471	571200
6.707256	0.0000014472	572800
6.704313	0.0000014469	574400
6.704086	0.0000014464	576000
6.707286	0.0000014468	577600
6.704020	0.0000014468	579200
6.702004	0.0000014466	580800
6.703765	0.0000014467	582400
6.703985	0.0000014467	584000
6.705633	0.0000014469	585600
6.705662	0.0000014469	587200
6.704254	0.0000014465	588800
6.704107	0.0000014464	590400
6.701908	0.0000014463	592000
6.698473	0.0000014457	593600
6.696896	0.0000014453	595200
6.695868	0.0000014452	596800
6.693761	0.0000014450	598400
6.693630	0.0000014454	600000
6.694346	0.0000014455	601600
6.695258	0.0000014455	603200
6.696444	0.0000014453	604800
6.697316	0.0000014453	606400
6.696073	0.0000014455	608000
6.695338	0.0000014454	609600
6.696001	0.0000014459	611200
6.694264	0.0000014458	612800
6.694925	0.0000014458	614400
6.695614	0.0000014458	616000
6.696791	0.0000014458	617600
6.696408	0.0000014457	619200
6.694584	0.0000014457	620800
6.694896	0.0000014459	622400
6.694592	0.0000014462	624000
6.694217	0.0000014462	625600
6.694957	0.0000014463	627200
6.693967	0.0000014464	628800
6.694201	0.0000014463	630400
6.694700	0.0000014462	632000
6.693829	0.0000014464	633600
6.692029	0.0000014462	635200
6.690001	0.0000014458	636800
6.690975	0.0000014461	638400
6.691815	0.0000014463	640000
6.691676	0.0000014459	641600
6.693631	0.0000014461	643200
6.695360	0.0000014465	644800
6.698850	0.0000014472	646400
6.699364	0.0000014470	648000
6.700852	0.0000014472	649600
6.700751	0.0000014472	651200
6.703367	0.0000014472	652800
6.702239	0.0000014471	654400
6.703294	0.0000014470	656000
6.701553	0.0000014469	657600
6.702677	0.0000014467	659200
6.704161	0.0000014468	660800
6.704180	0.0000014463	662400
6.705009	0.0000014461	664000
6.701798	0.0000014459	665600
6.697346	0.0000014453	667200
6.695785	0.0000014452	668800
6.695119	0.0000014454	670400
6.698391	0.0000014457	672000
6.699307	0.0000014459	673600
6.699173	0.0000014458	675200
6.697978	0.0000014461	676800
6.698266	0.0000014469	678400
6.701347	0.0000014470	680000
6.703301	0.0000014469	681600
6.705760	0.0000014468	683200
6.702786	0.0000014465	684800
6.704572	0.0000014466	686400
6.703090	0.0000014464	688000
6.701107	0.0000014462	689600
6.701851	0.0000014461	691200
6.702379	0.0000014463	692800
6.701434	0.0000014461	694400
6.703267	0.0000014461	696000
6.704364	0.0000014461	697600
6.704267	0.0000014460	699200
6.703470	0.0000014460	700800
6.705815	0.0000014459	702400
6.706247	0.0000014458	704000
6.703018	0.0000014459	705600
6.704262	0.0000014455	707200
6.705602	0.0000014453	708800
6.704305	0.0000014450	710400
6.704293	0.0000014448	712000
6.704541	0.0000014450	713600
6.704439	0.0000014452	715200
6.704978	0.0000014454	716800
6.704547	0.0000014452	718400
6.704272	0.0000014450	720000
6.704280	0.0000014452	721600
6.704635	0.0000014457	723200
6.705771	0.0000014456	724800
6.705123	0.0000014454	726400
6.705442	0.0000014457	728000
6.706679	0.0000014454	729600
6.707058	0.0000014454	731200
6.705853	0.0000014456	732800
6.706793	0.0000014460	734400
6.707854	0.0000014459	736000
6.707860	0.0000014458	737600
6.707179	0.0000014453	739200
6.708395	0.0000014453	740800
6.711404	0.0000014459	742400
6.711504	0.0000014462	744000
6.708741	0.0000014458	745600
6.708308	0.0000014460	747200
6.709869	0.0000014460	748800
6.708398	0.0000014458	750400
6.710316	0.0000014460	752000
6.711222	0.0000014463	753600
6.707232	0.0000014460	755200
6.708217	0.0000014460	756800
6.706720	0.0000014462	758400
6.707766	0.0000014467	760000
6.706488	0.0000014464	761600
6.705477	0.0000014462	763200
6.708900	0.0000014465	764800
6.709101	0.0000014464	766400
6.708320	0.0000014465	768000
6.709067	0.0000014469	769600
6.707475	0.0000014470	771200
6.708517	0.0000014470	772800
6.708964	0.0000014470	774400
6.709460	0.0000014472	776000
6.709681	0.0000014472	777600
6.708714	0.0000014475	779200
6.708862	0.0000014475	780800
6.709961	0.0000014475	782400
6.708667	0.0000014474	784000
6.708090	0.0000014474	785600
6.705282	0.0000014471	787200
6.705663	0.0000014467	788800
6.706222	0.0000014470	790400
6.706026	0.0000014473	792000
6.705042	0.0000014469	793600
6.706993	0.0000014468	795200
6.707406	0.0000014467	796800
6.707036	0.0000014463	798400
6.705336	0.0000014464	800000
6.706918	0.0000014466	801600
6.706809	0.0000014466	803200
6.704806	0.0000014464	804800
6.706132	0.0000014464	806400
6.706284	0.0000014464	808000
6.702408	0.0000014457	809600
6.702494	0.0000014456	811200
6.701454	0.0000014455	812800
6.702008	0.0000014453	814400
6.703243	0.0000014453	816000
6.703287	0.0000014450	817600
6.703228	0.0000014449	819200
6.702487	0.0000014447	820800
6.701276	0.0000014446	822400
6.700550	0.0000014447	824000
6.701293	0.0000014447	825600
6.702260	0.0000014450	827200
6.700019	0.0000014446	828800
6.698296	0.0000014446	830400
6.694798	0.0000014439	832000
6.696069	0.0000014440	833600
6.696102	0.0000014442	835200
6.696473	0.0000014438	836800
6.698983	0.0000014437	838400
6.697981	0.0000014438	840000
6.697571	0.0000014439	841600
6.699290	0.0000014438	843200
6.699101	0.0000014436	844800
6.698206	0.0000014432	846400
6.699376	0.0000014432	848000
6.698882	0.0000014438	849600
6.696554	0.0000014439	851200
6.696089	0.0000014437	852800
6.698810	0.0000014440	854400
6.699628	0.0000014440	856000
6.698141	0.0000014442	857600
6.699094	0.0000014443	859200
6.700303	0.0000014441	860800
6.698834	0.0000014439	862400
6.701614	0.0000014443	864000
6.702833	0.0000014446	865600
6.703230	0.0000014447	867200
6.703848	0.0000014447	868800
6.701479	0.0000014445	870400
6.699658	0.0000014446	872000
6.699301	0.0000014446	873600
6.697794	0.0000014443	875200
6.697806	0.0000014449	876800
6.696518	0.0000014448	878400
6.695522	0.0000014449	880000
6.695548	0.0000014448	881600
6.696465	0.0000014447	883200
6.696485	0.0000014448	884800
6.695895	0.0000014448	886400
6.694964	0.0000014445	888000
6.698751	0.0000014443	889600
6.696997	0.0000014442	891200
6.697739	0.0000014441	892800
6.698330	0.0000014441	894400
6.695361	0.0000014441	896000
6.696319	0.0000014437	897600
6.697278	0.0000014434	899200
6.699126	0.0000014437	900800
6.698074	0.0000014438	902400
6.698226	0.0000014436	904000
6.697458	0.0000014435	905600
6.694777	0.0000014435	907200
6.694944	0.0000014435	908800
6.694184	0.0000014437	910400
6.694744	0.0000014436	912000
6.696015	0.0000014437	913600
6.694978	0.0000014438	915200
6.694877	0.0000014438	916800
6.694629	0.0000014437	918400
6.694955	0.0000014437	920000
6.694693	0.0000014440	921600
6.695925	0.0000014437	923200
6.697176	0.0000014439	924800
6.695772	0.0000014438	926400
6.694673	0.0000014438	928000
6.694161	0.0000014434	929600
6.694453	0.0000014430	931200
6.694516	0.0000014426	932800
6.694010	0.0000014425	934400
6.693885	0.0000014426	936000
6.694295	0.0000014430	937600
6.696323	0.0000014433	939200
6.698179	0.0000014436	940800
6.697892	0.0000014438	942400
6.698879	0.0000014439	944000
6.697626	0.0000014437	945600
6.697581	0.0000014437	947200
6.695129	0.0000014434	948800
6.696611	0.0000014437	950400
6.696957	0.0000014441	952000
6.698069	0.0000014441	953600
6.702101	0.0000014443	955200
6.701218	0.0000014440	956800
6.699658	0.0000014440	958400
6.701441	0.0000014435	960000
6.703012	0.0000014438	961600
6.703512	0.0000014436	963200
6.702061	0.0000014437	964800
6.700435	0.0000014438	966400
6.700400	0.0000014438	968000
6.697916	0.0000014435	969600
6.696748	0.0000014439	971200
6.693160	0.0000014437	972800
6.694704	0.0000014439	974400
6.693741	0.0000014441	976000
6.691962	0.0000014440	977600
6.694481	0.0000014441	979200
6.695700	0.0000014442	980800
6.696531	0.0000014444	982400
6.699260	0.0000014447	984000
6.698818	0.0000014446	985600
6.701485	0.0000014446	987200
6.699721	0.0000014438	988800
6.698854	0.0000014440	990400
6.700595	0.0000014443	992000
6.701632	0.0000014444	993600
6.702493	0.0000014446	995200
6.700040	0.0000014442	996800
6.701006	0.0000014444	998400
6.701493	0.0000014444	1000000
