9.422653	0.0000018961	1600
9.386920	0.0000018906	3200
9.340117	0.0000018833	4800
9.279983	0.0000018738	6400
9.241020	0.0000018675	8000
9.181993	0.0000018578	9600
9.116600	0.0000018469	11200
9.055801	0.0000018367	12800
8.992104	0.0000018259	14400
8.918019	0.0000018134	16000
8.848535	0.0000018018	17600
8.777251	0.0000017899	19200
8.722868	0.0000017809	20800
8.655162	0.0000017693	22400
8.587473	0.0000017578	24000
8.494804	0.0000017417	25600
8.394512	0.0000017243	27200
8.307041	0.0000017089	28800
8.212591	0.0000016923	30400
8.124417	0.0000016770	32000
8.044887	0.0000016631	33600
7.959072	0.0000016474	35200
7.883785	0.0000016345	36800
7.810064	0.0000016219	38400
7.743041	0.0000016100	40000
7.681731	0.0000015990	41600
7.620347	0.0000015873	43200
7.539462	0.0000015725	44800
7.448076	0.0000015560	46400
7.357808	0.0000015401	48000
7.264013	0.0000015227	49600
7.165974	0.0000015051	51200
7.070405	0.0000014877	52800
6.980748	0.0000014715	54400
6.899194	0.0000014562	56000
6.818382	0.0000014408	57600
6.731892	0.0000014248	59200
6.654033	0.0000014105	60800
6.584158	0.0000013976	62400
6.517496	0.0000013849	64000
6.446320	0.0000013718	65600
6.378372	0.0000013597	67200
6.309988	0.0000013467	68800
6.243005	0.0000013338	70400
6.180251	0.0000013224	72000
6.122088	0.0000013142	73600
6.068879	0.0000013082	75200
6.010932	0.0000013017	76800
5.958309	0.0000012961	78400
5.908141	0.0000012906	80000
5.851578	0.0000012846	81600
5.804297	0.0000012792	83200
5.757944	0.0000012742	84800
5.712932	0.0000012689	86400
5.674974	0.0000012647	88000
5.635801	0.0000012600	89600
5.596273	0.0000012556	91200
5.555001	0.0000012504	92800
5.518222	0.0000012460	94400
5.484268	0.0000012414	96000
5.453815	0.0000012373	97600
5.419952	0.0000012324	99200
5.381974	0.0000012273	100800
5.353825	0.0000012228	102400
5.324182	0.0000012181	104000
5.296431	0.0000012140	105600
5.268187	0.0000012093	107200
5.241723	0.0000012049	108800
5.211692	0.0000012005	110400
5.165442	0.0000011937	112000
5.087742	0.0000011835	113600
4.995212	0.0000011721	115200
4.910296	0.0000011617	116800
4.827919	0.0000011511	118400
4.738752	0.0000011400	120000
4.646596	0.0000011287	121600
4.548620	0.0000011172	123200
4.454003	0.0000011062	124800
4.356447	0.0000010951	126400
4.270000	0.0000010847	128000
4.187419	0.0000010747	129600
4.101992	0.0000010644	131200
4.022624	0.0000010549	132800
3.946008	0.0000010459	134400
3.859928	0.0000010360	136000
3.781436	0.0000010263	137600
3.705730	0.0000010167	139200
3.621415	0.0000010067	140800
3.548318	0.0000009968	142400
3.477365	0.0000009875	144000
3.408376	0.0000009783	145600
3.341889	0.0000009712	147200
3.275681	0.0000009637	148800
3.212885	0.0000009572	150400
3.148733	0.0000009501	152000
3.084225	0.0000009435	153600
3.025342	0.0000009373	155200
2.969961	0.0000009316	156800
2.908433	0.0000009252	158400
2.850424	0.0000009191	160000
2.785721	0.0000009130	161600
2.730157	0.0000009072	163200
2.679642	0.0000009013	164800
2.623678	0.0000008955	166400
2.574808	0.0000008899	168000
2.522109	0.0000008843	169600
2.470296	0.0000008786	171200
2.423648	0.0000008729	172800
2.378566	0.0000008673	174400
2.333364	0.0000008617	176000
2.287694	0.0000008560	177600
2.246727	0.0000008510	179200
2.207225	0.0000008459	180800
2.166377	0.0000008402	182400
2.123490	0.0000008350	184000
2.083701	0.0000008299	185600
2.042856	0.0000008247	187200
2.009125	0.0000008200	188800
1.974563	0.0000008150	190400
1.940772	0.0000008102	192000
1.906843	0.0000008051	193600
1.871999	0.0000008001	195200
1.839169	0.0000007949	196800
1.810457	0.0000007902	198400
1.778655	0.0000007856	200000
1.741135	0.0000007776	201600
1.705461	0.0000007695	203200
1.670175	0.0000007615	204800
1.636676	0.0000007535	206400
1.600175	0.0000007454	208000
1.566913	0.0000007376	209600
1.536654	0.0000007299	211200
1.503413	0.0000007224	212800
1.474090	0.0000007155	214400
1.443900	0.0000007081	216000
1.414500	0.0000007012	217600
1.387560	0.0000006943	219200
1.360913	0.0000006874	220800
1.335739	0.0000006810	222400
1.310247	0.0000006748	224000
1.284386	0.0000006686	225600
1.261862	0.0000006630	227200
1.240740	0.0000006571	228800
1.217366	0.0000006515	230400
1.198075	0.0000006460	232000
1.174544	0.0000006407	233600
1.154695	0.0000006355	235200
1.135471	0.0000006306	236800
1.115126	0.0000006257	238400
1.096743	0.0000006212	240000
1.078884	0.0000006167	241600
1.061710	0.0000006121	243200
1.045559	0.0000006079	244800
1.030300	0.0000006036	246400
1.016546	0.0000005999	248000
0.999658	0.0000005956	249600
0.986264	0.0000005915	251200
0.969741	0.0000005877	252800
0.955157	0.0000005838	254400
0.942747	0.0000005803	256000
0.928084	0.0000005763	257600
0.916467	0.0000005730	259200
0.907661	0.0000005703	260800
0.895947	0.0000005670	262400
0.886873	0.0000005639	264000
0.874522	0.0000005609	265600
0.862430	0.0000005576	267200
0.853837	0.0000005549	268800
0.845504	0.0000005522	270400
0.832998	0.0000005494	272000
0.825278	0.0000005467	273600
0.816053	0.0000005441	275200
0.805347	0.0000005415	276800
0.799203	0.0000005395	278400
0.790232	0.0000005371	280000
0.786158	0.0000005355	281600
0.777034	0.0000005332	283200
0.772197	0.0000005313	284800
0.766047	0.0000005291	286400
0.757550	0.0000005269	288000
0.750731	0.0000005255	289600
0.745653	0.0000005239	291200
0.741237	0.0000005227	292800
0.736588	0.0000005219	294400
0.732509	0.0000005204	296000
0.727653	0.0000005189	297600
0.724646	0.0000005172	299200
0.720385	0.0000005160	300800
0.717593	0.0000005154	302400
0.714776	0.0000005142	304000
0.712885	0.0000005139	305600
0.709399	0.0000005135	307200
0.709589	0.0000005131	308800
0.707018	0.0000005124	310400
0.703416	0.0000005115	312000
0.702573	0.0000005113	313600
0.699580	0.0000005106	315200
0.699025	0.0000005101	316800
0.697526	0.0000005096	318400
0.696447	0.0000005089	320000
0.693552	0.0000005083	321600
0.689989	0.0000005076	323200
0.688166	0.0000005071	324800
0.686038	0.0000005068	326400
0.685372	0.0000005067	328000
0.687674	0.0000005068	329600
0.685630	0.0000005063	331200
0.683886	0.0000005058	332800
0.685906	0.0000005059	334400
0.683945	0.0000005059	336000
0.682499	0.0000005056	337600
0.684834	0.0000005056	339200
0.684335	0.0000005053	340800
0.683040	0.0000005048	342400
0.680775	0.0000005043	344000
0.682535	0.0000005039	345600
0.682068	0.0000005035	347200
0.682179	0.0000005034	348800
0.682262	0.0000005033	350400
0.683678	0.0000005033	352000
0.682753	0.0000005030	353600
0.682753	0.0000005027	355200
0.682526	0.0000005025	356800
0.681751	0.0000005025	358400
0.681136	0.0000005020	360000
0.682217	0.0000005024	361600
0.681619	0.0000005024	363200
0.681706	0.0000005023	364800
0.678602	0.0000005019	366400
0.676015	0.0000005015	368000
0.677398	0.0000005014	369600
0.677357	0.0000005010	371200
0.677229	0.0000005005	372800
0.678251	0.0000005003	374400
0.678529	0.0000005005	376000
0.678744	0.0000005002	377600
0.676656	0.0000004999	379200
0.677435	0.0000004995	380800
0.679349	0.0000004997	382400
0.680289	0.0000004998	384000
0.679333	0.0000004996	385600
0.679573	0.0000005000	387200
0.679554	0.0000005003	388800
0.678938	0.0000005001	390400
0.677095	0.0000004998	392000
0.679762	0.0000004997	393600
0.679069	0.0000004996	395200
0.679474	0.0000004995	396800
0.682828	0.0000004996	398400
0.683041	0.0000004992	400000
0.681996	0.0000004989	401600
0.683423	0.0000004987	403200
0.681744	0.0000004987	404800
0.681364	0.0000004987	406400
0.682166	0.0000004986	408000
0.683251	0.0000004988	409600
0.683742	0.0000004988	411200
0.682907	0.0000004987	412800
0.683543	0.0000004980	414400
0.682700	0.0000004978	416000
0.681905	0.0000004979	417600
0.681492	0.0000004978	419200
0.681003	0.0000004980	420800
0.681104	0.0000004982	422400
0.679310	0.0000004981	424000
0.680566	0.0000004984	425600
0.680044	0.0000004980	427200
0.680956	0.0000004982	428800
0.681018	0.0000004981	430400
0.679814	0.0000004978	432000
0.680672	0.0000004977	433600
0.680807	0.0000004976	435200
0.679736	0.0000004975	436800
0.675148	0.0000004972	438400
0.675063	0.0000004973	440000
0.672411	0.0000004969	441600
0.672512	0.0000004966	443200
0.673695	0.0000004968	444800
0.674038	0.0000004964	446400
0.673708	0.0000004963	448000
0.675994	0.0000004963	449600
0.677165	0.0000004963	451200
0.678961	0.0000004968	452800
0.678735	0.0000004967	454400
0.679899	0.0000004967	456000
0.679709	0.0000004965	457600
0.678043	0.0000004965	459200
0.675509	0.0000004958	460800
0.676530	0.0000004960	462400
0.676960	0.0000004961	464000
0.677238	0.0000004956	465600
0.674502	0.0000004956	467200
0.674761	0.0000004958	468800
0.674176	0.0000004960	470400
0.672342	0.0000004955	472000
0.674055	0.0000004953	473600
0.674151	0.0000004955	475200
0.674982	0.0000004961	476800
0.674688	0.0000004959	478400
0.674943	0.0000004956	480000
0.672134	0.0000004959	481600
0.671603	0.0000004961	483200
0.670915	0.0000004958	484800
0.669572	0.0000004963	486400
0.667775	0.0000004964	488000
0.669188	0.0000004964	489600
0.668517	0.0000004961	491200
0.667432	0.0000004958	492800
0.668387	0.0000004956	494400
0.670399	0.0000004955	496000
0.671919	0.0000004953	497600
0.673002	0.0000004954	499200
0.675250	0.0000004954	500800
0.673707	0.0000004955	502400
0.673697	0.0000004955	504000
0.670464	0.0000004950	505600
0.668131	0.0000004948	507200
0.667251	0.0000004944	508800
0.665831	0.0000004947	510400
0.663998	0.0000004947	512000
0.663103	0.0000004945	513600
0.661351	0.0000004938	515200
0.659876	0.0000004935	516800
0.661529	0.0000004937	518400
0.662244	0.0000004936	520000
0.661864	0.0000004938	521600
0.661792	0.0000004936	523200
0.660281	0.0000004935	524800
0.662059	0.0000004935	526400
0.661232	0.0000004933	528000
0.662385	0.0000004935	529600
0.661046	0.0000004938	531200
0.656834	0.0000004933	532800
0.657450	0.0000004937	534400
0.657500	0.0000004940	536000
0.659155	0.0000004942	537600
0.660105	0.0000004943	539200
0.660753	0.0000004943	540800
0.660384	0.0000004942	542400
0.660822	0.0000004942	544000
0.660998	0.0000004944	545600
0.659162	0.0000004942	547200
0.659513	0.0000004941	548800
0.660653	0.0000004942	550400
0.658881	0.0000004941	552000
0.657688	0.0000004941	553600
0.657112	0.0000004942	555200
0.657482	0.0000004940	556800
0.656513	0.0000004937	558400
0.657628	0.0000004939	560000
0.658142	0.0000004940	561600
0.660612	0.0000004945	563200
0.660670	0.0000004942	564800
0.661032	0.0000004946	566400
0.660791	0.0000004943	568000
0.660916	0.0000004941	569600
0.662194	0.0000004942	571200
0.662809	0.0000004941	572800
0.661073	0.0000004943	574400
0.661005	0.0000004948	576000
0.662104	0.0000004947	577600
0.663836	0.0000004950	579200
0.665344	0.0000004949	580800
0.658939	0.0000004943	582400
0.659106	0.0000004946	584000
0.656278	0.0000004940	585600
0.658068	0.0000004938	587200
0.655558	0.0000004938	588800
0.655483	0.0000004940	590400
0.655188	0.0000004940	592000
0.655545	0.0000004942	593600
0.655826	0.0000004945	595200
0.657618	0.0000004946	596800
0.656219	0.0000004947	598400
0.657720	0.0000004950	600000
0.655923	0.0000004914	601600
0.663747	0.0000004951	603200
0.664777	0.0000004950	604800
0.659643	0.0000004942	606400
0.660798	0.0000004946	608000
0.656824	0.0000004941	609600
0.657672	0.0000004935	611200
0.654268	0.0000004928	612800
0.652168	0.0000004924	614400
0.655960	0.0000004924	616000
0.657248	0.0000004925	617600
0.657324	0.0000004922	619200
0.657489	0.0000004915	620800
0.659446	0.0000004910	622400
0.659892	0.0000004908	624000
0.659098	0.0000004909	625600
0.659035	0.0000004912	627200
0.658382	0.0000004909	628800
0.662233	0.0000004909	630400
0.657986	0.0000004908	632000
0.659987	0.0000004904	633600
0.659877	0.0000004909	635200
0.659884	0.0000004910	636800
0.658722	0.0000004911	638400
0.658137	0.0000004910	640000
0.664693	0.0000004913	641600
0.658526	0.0000004913	643200
0.657056	0.0000004913	644800
0.659776	0.0000004913	646400
0.659306	0.0000004909	648000
0.658034	0.0000004909	649600
0.660852	0.0000004912	651200
0.663940	0.0000004910	652800
0.662435	0.0000004906	654400
0.662188	0.0000004905	656000
0.664148	0.0000004909	657600
0.667742	0.0000004914	659200
0.669284	0.0000004915	660800
0.669344	0.0000004914	662400
0.668960	0.0000004911	664000
0.668920	0.0000004911	665600
0.667288	0.0000004910	667200
0.669548	0.0000004909	668800
0.669320	0.0000004911	670400
0.669745	0.0000004909	672000
0.670978	0.0000004912	673600
0.674637	0.0000004915	675200
0.674990	0.0000004913	676800
0.669691	0.0000004911	678400
0.664833	0.0000004905	680000
0.663647	0.0000004904	681600
0.664880	0.0000004907	683200
0.662548	0.0000004901	684800
0.661196	0.0000004903	686400
0.660357	0.0000004903	688000
0.664586	0.0000004907	689600
0.668264	0.0000004907	691200
0.673280	0.0000004910	692800
0.676832	0.0000004915	694400
0.679373	0.0000004922	696000
0.679989	0.0000004925	697600
0.682470	0.0000004924	699200
0.679315	0.0000004919	700800
0.681851	0.0000004922	702400
0.680230	0.0000004921	704000
0.683530	0.0000004929	705600
0.687194	0.0000004931	707200
0.681200	0.0000004931	708800
0.680964	0.0000004931	710400
0.682314	0.0000004929	712000
0.681014	0.0000004932	713600
0.678654	0.0000004934	715200
0.676209	0.0000004933	716800
0.672743	0.0000004934	718400
0.672724	0.0000004932	720000
0.675847	0.0000004935	721600
0.676238	0.0000004932	723200
0.677557	0.0000004936	724800
0.675014	0.0000004935	726400
0.675979	0.0000004937	728000
0.676082	0.0000004936	729600
0.672215	0.0000004933	731200
0.673563	0.0000004931	732800
0.674923	0.0000004930	734400
0.681392	0.0000004930	736000
0.680943	0.0000004931	737600
0.677810	0.0000004929	739200
0.679316	0.0000004926	740800
0.683253	0.0000004927	742400
0.683076	0.0000004932	744000
0.684823	0.0000004934	745600
0.682771	0.0000004928	747200
0.682486	0.0000004927	748800
0.682377	0.0000004925	750400
0.681934	0.0000004921	752000
0.679669	0.0000004917	753600
0.678325	0.0000004917	755200
0.678350	0.0000004911	756800
0.672872	0.0000004905	758400
0.675912	0.0000004901	760000
0.702532	0.0000004898	761600
0.677793	0.0000004895	763200
0.679525	0.0000004890	764800
0.674119	0.0000004891	766400
0.675097	0.0000004895	768000
0.672776	0.0000004895	769600
0.672332	0.0000004897	771200
0.671128	0.0000004897	772800
0.665641	0.0000004897	774400
0.667287	0.0000004897	776000
0.666679	0.0000004896	777600
0.665887	0.0000004894	779200
0.661319	0.0000004891	780800
0.662298	0.0000004891	782400
0.661029	0.0000004890	784000
0.662766	0.0000004890	785600
0.662131	0.0000004888	787200
0.659652	0.0000004894	788800
0.658392	0.0000004896	790400
0.662950	0.0000004897	792000
0.666708	0.0000004897	793600
0.667748	0.0000004903	795200
0.665752	0.0000004901	796800
0.669969	0.0000004903	798400
0.668933	0.0000004902	800000
0.671553	0.0000004906	801600
0.669669	0.0000004904	803200
0.667128	0.0000004903	804800
0.667398	0.0000004905	806400
0.668191	0.0000004898	808000
0.668528	0.0000004892	809600
0.664173	0.0000004892	811200
0.664466	0.0000004890	812800
0.658173	0.0000004887	814400
0.658945	0.0000004882	816000
0.664041	0.0000004883	817600
0.662106	0.0000004881	819200
0.655804	0.0000004880	820800
0.661642	0.0000004883	822400
0.658888	0.0000004882	824000
0.660723	0.0000004881	825600
0.659111	0.0000004881	827200
0.661125	0.0000004882	828800
0.660491	0.0000004880	830400
0.658096	0.0000004875	832000
0.655021	0.0000004874	833600
0.649871	0.0000004873	835200
0.648932	0.0000004875	836800
0.642100	0.0000004872	838400
0.638689	0.0000004873	840000
0.641729	0.0000004868	841600
0.642747	0.0000004868	843200
0.642732	0.0000004871	844800
0.647571	0.0000004875	846400
0.642842	0.0000004874	848000
0.644165	0.0000004875	849600
0.642798	0.0000004875	851200
0.642857	0.0000004876	852800
0.644700	0.0000004878	854400
0.640829	0.0000004878	856000
0.647030	0.0000004877	857600
0.645007	0.0000004873	859200
0.642582	0.0000004870	860800
0.646381	0.0000004868	862400
0.642403	0.0000004870	864000
0.641145	0.0000004866	865600
0.638058	0.0000004865	867200
0.636197	0.0000004870	868800
0.636620	0.0000004867	870400
0.634311	0.0000004861	872000
0.636527	0.0000004858	873600
0.635022	0.0000004859	875200
0.635254	0.0000004857	876800
0.636371	0.0000004858	878400
0.632024	0.0000004854	880000
0.629654	0.0000004853	881600
0.628570	0.0000004852	883200
0.626812	0.0000004855	884800
0.624296	0.0000004851	886400
0.628278	0.0000004852	888000
0.624699	0.0000004848	889600
0.618812	0.0000004844	891200
0.626177	0.0000004848	892800
0.623496	0.0000004848	894400
0.626466	0.0000004844	896000
0.621195	0.0000004838	897600
0.625265	0.0000004837	899200
0.623719	0.0000004841	900800
0.626594	0.0000004839	902400
0.627124	0.0000004839	904000
0.621787	0.0000004831	905600
0.620426	0.0000004827	907200
0.621329	0.0000004829	908800
0.623792	0.0000004833	910400
0.622894	0.0000004831	912000
0.625138	0.0000004830	913600
0.624954	0.0000004831	915200
0.622679	0.0000004828	916800
0.623196	0.0000004830	918400
0.619804	0.0000004829	920000
0.553902	0.0000004826	921600
0.619002	0.0000004821	923200
0.619719	0.0000004819	924800
0.617209	0.0000004817	926400
0.616371	0.0000004813	928000
0.614417	0.0000004814	929600
0.612921	0.0000004813	931200
0.612463	0.0000004814	932800
0.612333	0.0000004813	934400
0.612350	0.0000004813	936000
0.610654	0.0000004813	937600
0.610823	0.0000004816	939200
0.610164	0.0000004817	940800
0.613052	0.0000004816	942400
0.615323	0.0000004820	944000
0.610131	0.0000004814	945600
0.608708	0.0000004813	947200
0.610774	0.0000004811	948800
0.610720	0.0000004818	950400
0.609888	0.0000004818	952000
0.611292	0.0000004818	953600
0.610524	0.0000004810	955200
0.614316	0.0000004812	956800
0.615010	0.0000004810	958400
0.615650	0.0000004811	960000
0.615810	0.0000004812	961600
0.616420	0.0000004812	963200
0.617988	0.0000004810	964800
0.618853	0.0000004809	966400
0.619025	0.0000004805	968000
0.618769	0.0000004803	969600
0.619044	0.0000004803	971200
0.620344	0.0000004807	972800
0.622193	0.0000004807	974400
0.627778	0.0000004811	976000
0.623973	0.0000004807	977600
0.626793	0.0000004809	979200
0.626981	0.0000004808	980800
0.627701	0.0000004807	982400
0.626684	0.0000004804	984000
0.630822	0.0000004808	985600
0.630328	0.0000004807	987200
0.632620	0.0000004809	988800
0.631167	0.0000004809	990400
0.636076	0.0000004812	992000
0.638224	0.0000004814	993600
0.636716	0.0000004811	995200
0.633146	0.0000004812	996800
0.631083	0.0000004810	998400
0.631536	0.0000004813	1000000
